# 3D point list with one line of data per point:
#   POINT3D_ID, X, Y, Z, R, G, B, ERROR, TRACK[] as (IMAGE_ID, POINT2D_IDX)
# Number of points: 371, mean track length: 3.7049624060150377
25270 0.57102963360640191 1.4962524641796799 0.3645427408350625 184 172 158 1.3179629916886491 14 4561 16 6431 12 4419 13 2627
25274 0.2400462317794608 0.57444364099007661 -0.14534723611687309 202 189 180 0.70701339934816887 14 7754 16 6457 12 6509 13 5984
54566 -0.33341340732640634 -0.43760670480642527 0.63910712632305955 179 157 136 1.6158576841939434 10 6020 9 6388 46 5667
54208 -0.13778888369079853 -0.65845944967360182 0.19564191673872386 147 136 130 1.3217386428855697 10 4813 9 5399 44 3524 6 4581
25279 0.040367594075327057 -0.18409774702088613 -0.13043396675119104 164 153 147 0.84269739694333057 14 8344 16 6473 12 5844 13 6502 7 6956
54806 -0.22710546767393183 -0.14492678579805698 0.85462475423628603 171 154 136 0.91249986845708653 44 7006 10 6951 46 3420
25947 -0.11669953568500983 -0.43295117232067798 -0.099514923773793812 92 73 58 2.3938181232034075 14 3020 16 5191 12 8352
30764 1.2410920982812994 1.4175248559816258 0.14286401994660614 92 81 61 1.2881400328366086 32 6595 30 6577 47 6841
25294 -0.13091728046956902 -0.31128605805538173 -0.0032710257821711615 192 178 165 0.72384106973225759 35 8564 16 6554 12 8370 14 8432 13 4472 7 4520 10 5134
25297 0.26055693367780269 -0.31621999690790775 -0.3306210692850361 160 143 125 1.1005649288800761 37 9321 39 6312 16 6578 8 8168
30763 1.0842449494343933 1.480248565994184 0.088767979950289233 108 83 53 0.93162552760674844 32 5907 30 6573 47 5852
25301 0.178307710025606 -0.34835603152612943 -0.34662124356578428 118 92 69 0.75369124402459919 14 5040 16 6607 13 7758
25303 -0.29932999491089046 -0.43368364908260815 0.093999560217620529 152 127 107 0.68824494515465062 36 8824 16 6621
38292 1.5357562694645968 2.0318398916669569 0.065528105654978144 33 24 15 1.3566573658045773 8 1611 15 2110
30783 1.4700901679487401 1.4570976635261998 0.33322392750807384 112 97 78 0.41163882884193481 32 8159 47 5985
25305 0.65474456198116504 -0.46005237463946547 -0.27560960411966157 171 161 151 0.33703363710730505 14 7013 37 8799 16 6629 38 6864
62353 0.014126064045347279 0.47056410655207465 -0.20259302775848889 79 61 41 2.5278707444999418 28 1547 31 1677 14 4741 8 7095 29 1108
25306 0.31238450726378753 -0.42491190478077823 -0.28868129968316164 163 147 131 0.6227821558623966 37 6073 39 9001 16 6632
38214 0.89937927972427734 2.6388412298019812 -0.10096070189554926 0 0 0 1.8990862750348161 8 1076 14 1131 15 1307
25661 -0.007443355768622391 -0.3670068281082427 -0.089290805083002162 147 140 132 1.575977295019235 35 8371 16 8334 12 8405 7 8043 36 9061
62812 0.34116692800344428 0.89200710960832763 -0.088408416666939896 129 114 93 1.1372779215799451 32 4985 31 3100 29 2517
25313 -0.066195313974804618 -0.51708130162515975 -0.1768836785608906 153 137 122 1.5318833110267174 36 8589 16 6707 12 7092 13 7944
25315 0.2627260118326602 -0.63717671240674478 -0.22807469575878461 0 0 0 1.4208052673638707 8 6256 37 8102 39 8169 38 6315 16 6729
69966 0.26876672840183269 -0.28452667359410888 -0.32895409040082696 118 96 73 2.3599526229494536 39 491 53 4277 8 1697 37 422 15 2352
25318 0.59907992863103732 -0.75514522654876459 -0.15785862361147801 128 102 80 1.8751235377547966 8 8601 14 5377 39 3968 16 6739 38 6142 40 3694 11 7091 37 4137 41 5585
25321 0.36776320863187723 2.1059765928386569 0.15567375990595672 100 88 76 0.76723956383367664 14 7211 16 6768 7 6325
25322 0.57569513673602579 1.8424909809084882 0.28029879491834236 22 13 4 0.64681878465993004 14 7229 12 7200
61862 0.20615804069491531 0.96251649141221429 -0.049780267602671749 82 65 47 1.0101209497124575 31 431 29 214 32 645
25323 0.55357625323950743 1.8131294618190053 0.27093730770713426 162 136 113 1.0855750105645545 14 6289 12 4496
25325 0.66646287318578956 1.774322638055855 0.14017301713023667 186 161 141 1.1086815845934457 14 7240 16 6799 13 7119
53009 0.97181625561039109 0.49932486994479003 -0.07603250235613794 81 79 75 1.1656095112248439 8 867 15 1227 30 796 34 549 47 642 32 737
25326 0.46046523783496496 1.7150185137065019 0.41671563544450313 200 183 163 0.86307512103944084 14 4647 16 6812 8 7839
25327 0.57808764319897565 1.6917403953910213 0.32148624208655269 165 148 130 0.50771867930017123 14 7282 16 6818 12 6163
60832 -0.12795797855766436 0.4480964978540467 0.21336563145237189 143 136 126 1.0303116076580259 16 4412 28 951 31 2023
25333 0.5109028241009177 1.6553901538240225 0.39899528763682612 162 145 129 0.75404742341062336 14 6330 16 6831 12 4456 13 5712
25335 1.0755678547137255 1.6718176749664446 0.11756283907996819 126 106 82 0.26082253172611408 8 8792 15 8190
26446 1.2393333728705276 0.46181557915435184 -0.0063938466766528266 114 106 85 0.96084636765948661 34 574 32 739 8 2847 47 1433
25337 0.5170236805839834 1.6287038395130631 0.40573248732886863 176 160 147 0.73928024947538395 14 7316 16 6842 13 5716
55149 -0.15764863711741642 -0.53220029733491303 -0.03263587386063483 64 56 48 2.4079940837485818 13 4246 12 3629
25338 0.87239493436165361 1.6056895108166804 0.05073468617295615 165 147 136 0.90875484049020017 14 7305 16 6845 12 7266
25343 0.48902184979651336 1.5460737321538243 0.44776542064941832 163 147 134 1.5939281111091728 8 8880 12 4429 16 6864
64667 0.53250457545789576 0.82206832365257643 -0.057721383175962288 121 114 98 1.2320328700148735 32 5086 29 1979 34 5462
25346 0.49551501835415901 1.5034094128277427 0.4388108558753811 180 164 151 1.0976670277917466 14 6408 16 6883 7 5838 12 7295 8 7609
25347 0.52038344880758747 1.4948421056007355 0.41318181502067386 174 162 148 0.78451567710766279 14 7372 16 6885 13 8122
25352 0.54202297354684936 1.4330486490114824 0.36929363426326223 172 155 137 0.97036530256210318 14 7396 16 6896 12 7317 7 6946 13 8109
63200 0.31651551134319195 0.8142272665607474 -0.11232440806486596 184 178 166 1.0369308379420812 28 5797 31 4962 29 3011
25355 0.95327075324435484 1.2716248648233655 0.077799702847995811 166 149 129 1.0520930488118141 8 8982 16 6920 15 6775
72554 0.52516832848057771 -0.81981369060761689 -0.056498723981857145 107 85 62 1.2528365756187758 53 7386 52 5844 51 3950
38871 0.98082155942411531 -0.25433808639490618 -0.26342025676340813 207 190 172 1.2953544612233152 39 1605 40 3333 15 3932 37 1599 38 3223 8 4520 14 5180 16 2855
25730 -0.040015154286387591 0.43020679337055556 -0.2287831175612281 133 106 79 1.0383015374707405 37 7402 16 8888 12 7722 13 7324
53339 -0.19582895116980206 -0.56787345775609965 0.73922687615815807 154 142 128 0.53248055670916405 7 1222 10 1419 9 1481 6 2256
25366 0.69059754614251412 1.0097098539451463 0.13443187461845571 154 143 125 0.13299318629712029 14 6513 16 6945
54593 -0.19350426196848847 -0.57864705316468512 0.7272824207852594 149 137 123 1.1448786186988074 44 5998 10 6098 9 5405 7 7399 6 7746 46 3882
25738 0.91124607444010763 0.51582572585534181 -0.089458150217409077 153 128 97 0.61341611829438092 14 6825 16 8975 34 5090
55024 -0.26963658117295491 -0.56913136136068687 0.65060505482666864 107 85 62 1.7493942391303809 10 7690 46 4850 9 3893 3 6285
25371 0.14346983868321514 0.95318159761922283 -0.05971223474145608 163 141 117 1.1278880364545276 16 6959 14 4451 12 6240 8 9097 31 2382 29 2029
25378 0.11637165897569809 0.91493801878295888 -0.064647856317654517 206 186 162 0.73280553511904001 14 7532 16 6977 12 7377 13 5785 7 5607 31 3965 29 2287
62569 0.7203443296611669 0.80160309539410335 0.02780460510375532 88 77 59 1.0961709889270768 31 2317 29 1282
25380 0.21765368486007988 0.91012470520887589 -0.10088268237581628 156 133 106 1.2823394164043578 8 6916 14 6548 16 6982 37 5141 12 7380 31 2450 29 1961
25383 0.051548531529177863 0.89845143633908664 -0.021601815541565615 191 164 137 1.2675844536889416 16 6988 12 6261 13 5463 7 5600 10 4622 31 3051 29 2317 14 7538
25387 0.22226190255588127 0.89113447989464778 -0.10107326855918163 193 171 147 1.2306724749427311 16 6996 12 7389 8 9125 31 3936 29 3067 28 3257
25390 0.16260847480042959 0.87711537772272263 -0.095803146893737937 198 176 153 1.2820334785226573 14 7548 16 7012 28 3515
25391 0.084677556292692566 0.87168245367792907 -0.053543796186835427 198 176 152 1.2267901443801437 14 7553 16 7013 12 4351 28 3188 31 3907 29 3054
56459 1.1309352207912042 1.0419739131341437 0.15450682201202606 0 0 0 0.20312713656881759 41 983 40 749
25394 0.19234054414409057 0.87138856221840399 -0.10264725136188485 168 146 123 0.8238467469368308 14 6582 16 7016 28 2056 29 1908 31 2502
26273 1.0298014530148267 -0.53640466135088471 -0.11322660806087174 91 79 67 1.5966180110184545 41 1458 42 2517 38 1478 40 1506 11 3978 15 6222 39 3421 14 4957 37 4614 8 5904 53 2457
25398 0.092755158319717174 0.8541061608172037 -0.05686599389363671 162 143 126 1.2063208939747925 16 7029 14 7571 31 3607 29 2274 28 3161 26 4933
25403 0.14489745738794918 0.83864025565224565 -0.092142091802982634 164 147 131 1.2966121904916457 14 6612 16 7046 12 6306 13 5429 8 9156 7 5837 37 7486 31 2596 29 2232 28 2806
25410 0.31663465595239931 0.8228648273569531 -0.1090789825735993 190 174 158 0.78671642836225109 14 6624 16 7064 12 6321 32 3592 13 2724 28 2064 31 2520 29 1605
70814 -0.2110745962275461 -0.39533041082648601 0.83842582760304407 115 95 71 1.623319852409256 46 5154 43 3869 33 2839 54 4923 56 4642
25414 0.25185557991078844 0.80803734655961013 -0.10660111614368029 201 191 181 0.40133953580710868 14 7610 16 7073 31 4465 29 2995
26367 1.0849310344219067 0.34545998393252259 -0.061692790048950508 92 83 68 1.736657698466763 32 430 47 506 15 890 8 899 11 683 30 291
62011 0.33728246703778564 0.90153703728518886 -0.093353316855259577 0 0 0 1.8895248168856558 8 2720 16 4196 14 3705 47 1188 32 2700
25420 0.19069738888207177 0.79234000114910741 -0.092900907663052368 181 172 163 0.77866846096134068 8 7262 28 2313 31 2633 29 2741 16 7087
25635 0.56072907461962651 1.7528646156299341 0.28789354919497634 171 149 124 1.4169356242904714 14 7254 16 8016
54657 -0.044992803445832522 0.43049712211036478 0.093579269095365208 166 159 151 2.9105737671851415 10 6447 27 3898
25802 0.23008009966724485 -0.31644740414743489 -0.32843300737264364 79 76 72 1.2589002170969708 39 6306 38 7100 16 6580 37 9319 8 6580 14 5627 15 6289 11 6859
25451 0.27172305132564711 0.65682489967265101 -0.14490950624272553 222 206 193 0.82437521136752534 14 6747 16 7224 13 5939 8 7197
62794 0.16411346841678706 0.90172525391597513 -0.087585589368159772 189 186 169 0.70343344241668826 28 2932 31 3028 29 1947
26271 0.92036135888116932 -0.041548524702008836 -0.2109102712154492 102 96 92 2.0905449039838548 38 923 39 1019 40 2047 15 4961 11 3547 14 2092 8 3053
25456 0.25967502403305004 0.59705388040399932 -0.15023159515390386 172 156 141 0.69820966835413334 14 7733 16 7254 12 7598 31 3696 29 2608
61575 -0.045560591214606684 0.79057820954106661 0.20713030498481377 163 154 139 0.36508105245247235 26 4304 28 4286
25458 0.058322881903544913 0.58981805835454515 -0.11802998650955022 124 106 84 0.88273717244549788 14 7740 16 7260 13 7245 31 1956 28 1832 29 1725
25459 0.22096341906429937 0.59059149357470242 -0.14244619753444643 201 184 167 1.7129376469404005 14 6777 16 7261 12 7602 13 7246 28 2551
62671 0.1772021630046845 0.79443104714618862 -0.092178036041744918 176 171 167 0.64575917738226696 12 6346 31 2637 29 2977
25462 0.079585159792106425 0.58353453208335937 -0.13122719426307247 129 111 89 1.409456446190021 14 7745 16 7265 31 1712 29 2760
53282 -0.15481854879147103 0.45838901442785024 0.73282488423127434 153 132 111 1.631896568746634 44 1722 10 1231 9 1359
25463 0.080047072398162167 0.5783268000205104 -0.13740514935495651 164 146 124 1.3021458766141967 14 4235 16 7267 29 1453 31 2867
53962 -0.30319846756286128 0.17401722068837805 0.73603452562463134 156 128 104 0.99718013206236411 7 5052 44 4854 10 3942 9 3274
25473 0.25951397798122366 0.52733573894409691 -0.16327272400390319 173 161 149 1.8515680850340426 14 7800 36 7433 16 7312 12 7649
53374 -0.28719340327869369 -0.33997726837557513 0.3110451433069516 204 195 186 0.855130906187755 10 1531 45 1963
25475 1.1539029608561859 0.50536382789018841 0.040945844239740792 168 152 135 1.0191499636212398 8 5052 14 6830 32 3454 16 7318
61643 1.2734815677585807 0.79965811228917083 0.12211025784055134 0 0 0 1.2105106625296038 16 426 14 501 8 1406
25478 0.93470941200055591 0.48714810809464071 -0.1043262285026705 145 124 95 0.6926405160417497 8 5031 16 7336 11 4752 34 3730
25481 -0.12697075696264182 0.47078453562406591 0.21857993801090625 175 159 143 1.1063616348701473 16 7343 12 6583 13 5202 7 5310 44 7790 14 7830 10 5749 26 3409 9 5632 28 2289
25483 -0.12343727891273998 0.4643804182161807 0.20960192296696148 141 125 109 0.74432518307285789 14 7832 16 7348 12 6586 13 5198 7 5308 44 8352 10 5746 26 2481 9 5630 28 1814
61651 0.91932172593218842 0.48664912028454399 -0.092121360162824184 101 81 57 1.2625341240612444 16 406 29 132
25486 -0.088553942222305032 0.46406242454471269 -0.20043588425122844 149 119 93 1.0473933379473352 14 7847 16 7369 12 6592 13 2923 7 5307
69753 1.1393163697403912 0.13857341268691123 -0.12343634947647751 114 113 110 1.6973036214451733 14 2821 15 3741 11 3476 8 3876 47 905 40 4105
25489 1.4854824161378115 0.41784019922148441 0.18976627551875461 113 101 87 0.6480919580603387 14 1337 16 7373
62900 0.2105375296900226 0.94838650181903317 -0.074460567633719693 131 114 94 0.74297688608882206 28 3338 31 3392 29 2755
25699 -0.17897810822768048 -0.016966645623548493 0.087806624003774814 154 133 114 1.013071714744153 14 8154 16 8600 12 8068
25497 -0.10978690032881983 0.40970036310000579 0.17286611660151188 184 168 155 1.3605820472206895 16 7391 12 4074 13 6080 7 5256 44 7748 10 6474 9 5607 26 4537 28 3475
25707 0.35971415468704498 0.10629952037527808 -0.2022893409598234 175 167 153 0.23120221672751892 14 8075 16 8688
25501 0.12603028627639531 0.40014305251069804 -0.17653805532867206 149 114 85 0.69650119184935011 14 7889 36 4992 16 7414
32304 1.4275892977875448 1.4926903539085017 0.32908947407661288 82 64 44 0.67944772127762165 30 632 47 792
25810 0.13440721730001676 -0.63259103548355411 -0.19290162862939689 161 148 139 0.8429960099779823 36 1 16 10
25511 -0.15184799114425468 0.35732382408916097 0.24907017534324644 186 169 153 0.68639227307748474 14 7900 16 7435 12 6679 13 5119 7 2861 26 3284
25514 -0.0074010540982938321 0.37726171369140665 -0.20411477216481055 154 137 127 1.2925747819114477 37 4972 16 7442 8 4966
25518 -0.055792936424790884 0.37428083308889531 -0.22036877946738448 184 167 151 0.064842480878960926 37 4973 16 7449
25603 -0.028795991003070842 -0.44346225713095022 -0.15327654737407265 136 119 103 1.7303239663644645 14 8582 16 7818 8 8247 12 7010 13 5658 15 7630
63013 0.25837164702526449 0.96212999312714687 -0.062111868951288285 106 89 69 0.7721516158704701 28 3364 31 3877 29 2064
25522 -0.099270474755610863 0.33808798368418885 0.16667962192058389 190 174 161 1.8242684459497192 16 7457 13 6130 7 6425 45 6457 12 7807 35 6841 36 7222
25526 -0.094702358534252642 0.3288506707895254 0.16247796614401239 200 188 176 1.3589400778278138 16 7465 13 5092 12 6705 7 5818 44 7664 35 5668 36 7212
25531 -0.043666403668303724 0.32390950693753207 -0.20186754929541409 191 174 158 0.2032152598568068 14 7962 16 7486 12 6716
54310 -0.32902102028883629 -0.31157536633752181 0.61529605235831619 101 79 58 1.3922267244966213 44 6768 10 5080 9 6076 6 5562 46 6931 5 2518 43 4877
25535 0.77757662994839272 0.2754376282378751 -0.17302925230694388 113 93 68 1.4941194174479964 14 6164 16 7501 12 7837
25538 1.0936913201408778 -0.26329694019729144 -0.21581614162035453 177 155 132 0.75033269702956717 14 5186 16 7511
25539 0.015408145816929581 0.27497089585602064 -0.17645591993852225 156 140 124 2.0429450324512461 8 6999 14 4073 36 7305 37 4893 16 7512
25545 0.035474547884713097 0.24592502047473677 -0.18173980737411066 0 0 0 0.0016110616185190949 37 7259 39 7447
40120 0.77802939421872874 -0.67564647970002323 -0.11283803704652176 186 180 174 1.9421135833660466 39 770 37 987 15 1009 38 666 40 716 41 1532 8 1067 14 1645 53 741 52 1010
25549 0.047949784399827056 0.21800800001731011 -0.15204943551721978 162 152 140 0.80635558307894328 8 6967 14 6117 37 7222 16 7556
31020 1.3664114794772415 0.3835333092694943 0.096781477519425396 55 45 35 2.2706588979219644 8 4979 42 2054 40 2538 15 3906 11 3382 30 1497 19 2518 47 966
25550 -0.003930370784630201 0.21509969491660158 -0.18265960273366616 148 132 116 2.8556758787105516 39 7418 16 7561
74471 -0.13458590195909584 -0.647316356162427 0.039676514290876257 167 149 129 1.5172598097952479 51 188 50 178
62955 0.043854597295880086 0.9050201113937183 -0.004815928903560085 121 106 85 0.49062104967457132 28 3249 31 3626 29 3126
26278 0.99741946232853274 -0.0575792019734616 -0.20337555341535191 171 165 158 1.9336136816722449 14 2083 39 1011 37 1451 8 3704 38 3967 40 7280 15 6975
61582 -0.099759242609469487 0.49926921423665299 0.17782869924148131 174 167 159 0.35408633012924895 26 5258 28 4458 31 4540
25555 1.0230181166402383 0.16437687667673723 -0.20866698636046555 115 90 67 0.93239137636020741 37 7133 16 7574
34940 1.2684184481027041 0.35647505423171566 -0.057332597126366652 142 121 94 0.73013392916040565 14 2696 12 3642
25557 0.059447469551338818 0.17262027693774357 -0.13976018677472971 147 137 125 1.3001291884190149 14 6081 36 7155 16 7591 8 9457
56953 -0.10466885686625305 0.58384169662793983 0.22249843936377853 133 125 112 0.26035658838281023 7 7586 26 3536
25562 0.38352026323481647 0.14621610377533006 -0.19497235246519398 167 155 141 0.48753710444265658 8 4821 14 8047 16 7602
25566 0.1616865856433006 0.11378509020773266 -0.067501797135914685 123 115 104 0.78766328188285917 8 4812 14 6052 16 7618
53853 -0.069215785496833576 0.73706147050117365 0.39863874437409297 157 140 120 1.3885786791209564 7 5500 10 3493 26 2790 27 2754 28 4025 44 2565
25574 0.023628583420041475 0.097961981274511653 -0.16334089681602235 160 148 136 0.19157858060064892 8 9502 16 7646
54286 -0.29260113504285917 -0.37579873916515227 0.76137999163515602 135 110 88 2.1254903789599298 10 5006 9 4033 6 3652 46 2182 44 2708 3 2992
25575 0.041618504223548451 0.078631582506118153 -0.15658252643894657 172 160 148 0.40219573363266814 14 8090 16 7656
86097 0.3772153810235887 0.56237730093003868 1.1426922282034058 0 0 0 0.48586515529065094 3 194 23 68
25577 1.2165677108698187 -0.022257682910579273 -0.13692266081420362 152 133 111 0.27306290590295412 14 3918 16 7680
25579 0.027793671217181369 0.035423800061111475 -0.16349444893822881 203 190 181 0.52534927133690501 37 6995 16 7689
25582 -0.22555542800910794 -0.030458215116182626 0.19959613175201515 194 181 172 0.94585631722231245 16 7715 12 5278 13 3349 7 2643 44 3082 10 4119 9 3167 36 5640
25589 -0.144748748458979 -0.044827391375156983 0.026654797495831259 146 130 117 1.5915343542149007 16 7753 12 5998 13 3374 7 4829 36 5064
25591 -0.15339498865266524 -0.05425138078587232 0.041016044922479351 156 144 132 0.83920481538059921 35 5274 16 7765 12 5243 13 4778
54684 -0.10009191915941373 0.31375172264860751 -0.13274652696885611 185 169 154 0.67167301768647858 10 6555 9 5564 7 6459
25675 0.93213793773684606 -0.22481186488599814 -0.24210890025399823 160 148 134 1.6851410017125457 36 9271 12 8184 16 8460
25599 0.011355223258567271 -0.070518709641801722 -0.16335567937142276 156 139 129 0.20106700415373455 14 8252 16 7800 12 5213
25601 -0.11442401127910179 -0.094033874732160461 -0.022621366077435041 142 129 118 1.3896788785001777 12 2719 13 4713 7 3305 16 7809 10 7283
25602 -0.12536316626258276 -0.10267636562489904 -0.0012126695444116594 192 180 168 0.91047003730498044 16 7812 12 5917 13 4698 7 3322 10 6067 35 5723 44 7094
75494 -0.23248124463727776 -0.12858043208839767 0.85277992556250692 139 129 117 1.7477569039124146 6 1747 46 1002 3 2083 10 1601 56 2021
25605 0.0039215760814354439 -0.12363880518323116 -0.14391954190377487 210 198 186 0.95008653175824953 35 5754 16 7834 12 2757
64039 -0.058436628659398158 0.48883978890712393 -0.24895881137727793 76 59 43 1.426967571523809 31 1892 29 1404
61633 -0.16944485772618362 -0.31807145399544617 0.00017878891306300778 169 158 152 0.83010340784979508 26 114 28 80
26556 1.0378877918464982 0.19627200033548889 -0.14703242485380516 94 90 78 1.5800726406988526 34 1131 32 1216
25617 1.1695619638310439 1.4199949567996222 0.03078802341798452 177 153 127 1.2711247384150488 8 7623 16 7891
63691 -0.0025407370106749201 0.16468635669095982 -0.19981458360199375 135 128 121 1.7991978381485132 31 605 29 542
63017 0.22157995406993661 0.86246144039898487 -0.10055127093010718 154 143 126 0.40178060248902625 32 7679 31 3895 29 3036
27526 1.2020601418676591 0.52068527073182291 0.061692113902084705 170 169 164 1.4723484363480617 34 3802 32 5291 30 3558
25632 0.51766930776153242 1.6358245919573249 0.4049620549845579 205 189 176 0.29177469569735504 14 7313 16 7965 13 8150
25633 0.59413552038587925 1.6691694475974899 0.31190828088561334 160 145 124 0.79454871448966014 14 7292 16 7981 12 4458
25634 0.57635032844225376 1.7531702458255181 0.2936441115496915 179 156 138 0.37599131265982472 14 7253 16 8015 12 7215
63932 0.10752424314064897 0.46331263159388175 -0.18302737525133675 76 58 36 0.92668850861735952 31 1113 29 1121
25639 0.36910817566580978 -0.17021951852274922 -0.26297041604068072 115 99 86 0.16837118054733125 14 8343 16 8090
25640 0.0057963653230126751 -0.13679416301219505 -0.13587818987036426 178 165 156 1.3529849110656762 36 9808 16 8093 51 6274
39636 0.9593931931636217 -0.64595688765488757 -0.068042950431128554 144 127 117 1.140260496451992 38 1190 15 6165 11 4103 40 733
25642 -0.026816612028247682 -0.069778079484528896 -0.12935498960831451 172 156 143 1.535299348796034 35 5101 16 8097 12 8124 13 4755 7 4812
62842 0.31837221550579664 0.92775553053726689 -0.077657925848267528 96 76 52 0.46118267689579451 28 3350 29 2436
25649 1.8503439842729732 1.8557014065983877 0.9722476041814081 138 144 142 1.1136722466401074 14 1192 16 8151
62840 0.15641286016765268 0.95821482005742931 -0.050939062162925423 114 102 86 0.79977865723391961 28 3029 31 3167 29 2417
25655 0.31285956519877844 -0.46870730991840082 -0.28081527557062219 131 113 93 2.226657831495785 36 8734 16 8258
25656 0.62058403959940445 -0.4601122281436773 -0.27089142593154292 153 143 133 1.1741722297012127 14 6919 36 8672 16 8287 12 8424
64102 0.24470825616572078 0.86337778194672077 -0.1029347900073925 0 0 0 1.5474026198694621 28 1367 32 2664 15 6077
27051 1.1217550302342552 1.4646823931959274 0.094039701658852809 135 124 104 0.93533782905592311 47 2066 30 2268 32 3054
25658 0.020288433555181069 -0.40120819173584954 -0.12704275824780303 164 157 149 2.1185331469156625 35 8282 16 8301 12 5642
25663 0.10251889294104176 -0.33950000966359367 -0.17387851065747356 155 146 137 2.2169829566352917 35 8427 16 8350 13 7745
25665 -0.024836848413277456 -0.29508604727325155 -0.064716547196446775 194 185 178 0.44224106107601563 16 8384 12 5740 36 9275
72290 0.17009666259773018 -0.75118948261010754 -0.17272350603663911 152 119 88 0.87505835900869344 52 4369 51 2710 50 1929
63139 0.085851250367990697 0.87373527679439822 -0.0512796561503399 156 144 132 1.0128928759239031 28 4027 31 4411 29 3668
26612 1.0282425564024089 0.48625652062743363 -0.036956601455396025 142 136 122 1.4195674625976935 32 1377 15 3621 8 3526 14 4192 38 1763 34 1208
25671 0.97052586698805399 -0.24127727065480714 -0.26547345100898095 133 112 91 0.34089981518782053 8 9489 16 8442
54758 -0.28227992630732335 0.009655924646521612 0.79163504054025213 176 159 141 0.27367023286849324 10 6795 6 6098 44 7369
25693 -0.15904416523306245 -0.05188958143745484 0.057877458431108871 188 176 164 1.1755236393065163 35 9204 16 8565 12 5993 7 6827
25697 1.1241848106824845 -0.076522798163815423 -0.18493101234392062 173 152 131 0.51741197739710476 37 6684 38 9306 16 8581
55223 1.3230481065082393 0.088011951053459672 -0.0034139518479076687 137 124 109 1.8663723639323135 8 3859 15 3060 14 2838 38 631 40 832 11 2135 38 1887 39 2308
25698 -0.1999979138504854 -0.04122497124227089 0.14267870468148719 147 129 115 1.5915445189754742 35 9211 12 6018 13 6815 7 7970 10 7251 16 8585 44 7266
25701 0.31025485177702999 0.018263665844378829 -0.28150607094637708 147 126 105 1.3920975500441968 14 8165 16 8610 12 8012
25703 0.98228599462991906 0.030046220740224686 -0.21583124853912683 161 149 130 1.738860992551583 14 8112 16 8660
53754 -0.3990279489075903 -0.31020794354344966 0.4253242198130861 164 135 117 1.0662923117987511 44 3814 27 2330
25709 -0.12868694454310264 0.12659324720862697 0.20069711438237153 147 135 123 0.63813743980649995 12 7957 13 7466 16 8720 7 6249 10 5489
27117 0.93041319307895376 0.52359311074809534 -0.085222738119925215 140 135 115 0.24739612805733452 34 5101 32 3394
63367 0.90639128199275432 0.47806887723653679 -0.11616632206373882 0 0 0 2.458377056211305 14 6860 32 3363 31 1804
25714 -0.026053172158254527 0.2672028077059358 -0.1869812921646325 190 173 156 0.92965466730734381 37 7281 16 8784
62910 0.23857903473984787 0.95467606277095451 -0.073276589252888102 108 92 69 0.94411579599540529 28 3046 31 3422 29 2791
25717 -0.053160001586553395 0.27529121822492336 -0.18839789056679859 194 173 156 1.0218474651462801 37 7289 16 8791
54951 -0.33635826067482855 -0.23821335921529097 0.56353140291043202 173 153 134 1.4524363011062154 45 7211 46 5823 9 6521 10 7399 44 6888
26600 1.1631463510085724 0.35105747770714907 -0.019026267889959626 104 100 91 2.4294095036912422 34 1932 32 1352 30 2587 8 9381
54068 -0.16716729400703725 -0.27413959660644754 0.054983471326540717 135 113 90 1.676436081577801 7 2502 10 4327 9 6167
25721 -0.12369541265204391 0.28130030772560877 0.22934040442184558 0 0 0 0.71820616991840169 35 9459 16 8815
62769 0.1275456040104605 0.86343838457545041 -0.081374274179788153 146 137 120 0.32123819703411921 28 2849 31 2941 29 2275
25722 -0.099801055183989379 0.34619661605423513 -0.19241493453498237 187 168 151 2.1756851451778547 36 7385 12 7813 16 8826
71528 0.62004197915850334 -0.31812007747177196 -0.30170151017409741 190 174 158 1.2914734009484996 53 1259 52 1671
54655 -0.14937930984010894 0.44390053246632549 0.27267822292773786 196 183 167 2.1453020726896992 44 8347 10 6439 27 1717
25728 -0.018324907940309599 0.3832250620468502 -0.21249789124290133 159 144 129 0.49367108080660166 14 7905 37 4981 16 8855
54748 -0.28929502547577252 0.051663289061659498 0.76949998044241485 169 149 130 1.297805211040826 6 6119 3 4844 10 6763 44 7425
25739 0.29741000686166719 0.52340192981295608 -0.17425884335968514 208 196 182 0.99354966580088067 14 7803 16 8976 12 6544 31 1705 29 1446
25741 1.5223980712739273 0.47185356280358209 1.1451408771759606 137 120 104 0.32412362267903461 8 1704 16 8981
25742 0.31401899749380818 0.59613045023316424 -0.16949810305933027 200 176 152 0.27623456256448403 14 7735 16 9018 12 7599
71548 0.29719690579363589 -0.54263687977027131 -0.27025882028139209 131 114 98 0.33901323494137742 53 2729 50 1021
25748 0.28169319379306046 0.64801365227566088 -0.14997643608494052 198 182 166 1.3376828555904197 14 7704 16 9047 12 7572 28 2477 31 2029 29 2626
71492 0.62526420957005413 -0.8010381044550885 -0.10942047940643759 153 130 98 1.037847225514867 53 779 52 1539 51 1996 50 2771
25756 0.032833818230554854 0.69537596933301293 -0.070580347172527008 190 164 141 1.8546150233104253 14 6959 16 9089 26 3061 28 3573 31 2753 29 2656
63042 0.3745950082582386 0.86172767578406717 -0.095195949678849326 125 113 96 0.6651013759330795 32 7318 31 3967 29 3082
27099 1.1716627644284323 0.33025560476274457 -0.038113545792417325 121 114 104 3.0614961031914842 34 4831 32 3319 8 9389 47 1469 15 5576 14 6268 11 5959
64509 0.29670782521460887 0.79256016655869488 -0.10949564635044984 157 155 150 1.4036862694199082 16 4443 14 4343 8 5205 31 2137 37 3155 29 1581 28 1325 15 6688 32 5165
25768 0.71928989182592484 0.81977357907807802 0.055905431072502579 129 109 85 1.5068988380350354 8 7284 31 1427 32 2716
25773 0.1506776602760341 0.85641488565627588 -0.09283594982468682 171 153 133 1.5807645516073752 8 9148 16 9208 28 2839 31 2524 29 1887
25795 0.62213779651837675 -0.6687769367028118 -0.13521335371584536 109 107 103 1.2513530298788555 38 2765 40 2847 16 4500 8 5805 14 4844 15 7473 11 6556 37 3213 39 4153 12 4717
59392 -0.052822856986346048 0.74603916943973925 0.44942383516344958 130 123 107 2.1062723518476729 6 5172 25 3010 27 3606 9 5180
26453 1.2913287138866649 0.57647907889972128 0.064492210232568195 135 127 114 1.758489036063106 32 764 15 3595 34 1242 11 3277 30 1182 8 4268
54707 -0.32223755486052186 -0.3853077873081952 0.71481632199693823 146 124 101 1.3624830687248266 44 4033 10 6635 9 6011 6 5476 46 3549 3 5026
25796 0.9966385942151923 0.10758696311070307 -0.2183491189571525 114 107 99 2.0019888740749083 38 306 40 417 15 627 11 658 37 595 39 360 14 678 16 946 12 2508 53 363
25798 0.12108314658157486 -0.10211658754707102 -0.21342940457542675 113 107 101 1.6784179591568045 14 3332 16 2021 39 4498 12 2722 36 1266 13 3432 51 1569
63366 0.22802460186908721 0.62729440721413943 -0.098415183633083242 199 196 191 1.9479407324950688 28 1752 31 1764 29 1172
25803 0.7290626485507341 -0.038080433733944367 -0.29630928641971566 180 172 157 1.6648986121922869 8 6806 39 4529 37 2807 38 3745 14 5926 16 4926
55014 -0.30649304706978564 -0.45646965413120011 0.34913491130195057 194 175 160 1.1743546119071284 7 6081 10 7641 44 6371
25804 0.44120042982394386 -0.14478892839190194 -0.34525677807954197 154 138 118 1.0186163250257254 8 8020 14 8330 16 5399 39 6894 37 6706 36 9764
39864 0.63609520573093536 2.6396608244359321 -0.038202128642556947 0 0 0 1.2207968739720914 8 4295 14 1573
54661 -0.052594207076038735 0.42208563166904611 0.080330833324968501 179 167 153 0.9552368092358291 10 6454 9 7773 6 7099 7 7649
25806 0.64074474388254121 -0.10338965645929764 -0.31130930810388158 75 69 63 1.9117910956011368 8 1879 14 1019 37 203 36 418 15 3003 16 994 14 277 12 647
63374 0.063227719007895117 0.66387598361613731 -0.10203598520612334 186 177 162 1.5334238499131414 28 1655 31 2011 29 1758
25811 -0.2399101341077895 -0.32441852045857761 0.14436063855882456 89 70 53 2.0964430114211963 8 61 12 42
39466 1.010942738950283 0.53338539407106333 -0.058057050921961097 165 154 134 1.3198166563103697 14 4213 39 2901 8 5068 11 4777 15 5696 16 7297 34 1974
25812 0.058081446462570997 0.4046055889468374 -0.16431263251723843 171 160 138 1.4766094016649245 8 134 14 128 12 127
25814 -0.09208549232082909 -0.2252482399901419 0.02581679354679858 189 180 175 0.73017783169295902 14 116 16 129
64322 0.050853451938108064 0.93277330594401231 0.007007311823014754 95 74 50 1.2506139644748395 26 4084 29 2426
25824 0.7967464308085157 -0.18173440890466228 -0.2819857865620361 123 107 91 1.6521401543361056 14 201 16 327 12 569
25827 0.95757082266492344 0.54146586726758505 -0.079728993457470324 128 99 69 1.1449976089805001 14 361 8 444 15 520 16 412 34 144 11 425
54621 -0.0022073092965965635 0.7272398158178105 0.056279717086255482 160 143 126 2.0680556294451531 10 6254 26 1639 29 1574 27 3230
25830 0.6191780005017915 -0.42603255181347044 -0.2679212319377558 178 168 159 1.9724459329948758 37 150 16 512 8 248
25837 0.77484840473905758 -0.22107647054558699 -0.29526248319888571 146 133 114 1.2314144165281102 36 321 16 1019
25838 0.47630327778656495 -0.33252037145351238 -0.35995334585526173 186 162 138 1.120113338955802 36 448 16 1049
54697 -0.19456484021931547 0.26706935440280727 0.35301244039537638 202 186 170 1.8121929676815978 44 7633 10 6597 45 6505
25842 0.83691248601476331 0.24790596664227416 -0.22858812849352572 190 172 147 0.84623819860885896 14 1288 16 1344
25851 0.56689272503637622 -0.52677031630713023 -0.24448029913183458 190 182 171 1.5363723750140215 8 2254 14 1861 39 1470 16 1661 36 1069 37 1066 38 1552 12 1868 53 1362 52 1794
25852 -0.14748116147120433 -0.56035891335555943 -0.080330021447401576 155 139 125 1.0214784102175822 36 1063 16 1805
64424 0.53632754854019127 0.79505202771738281 -0.05285971547848313 0 0 0 2.5384813560299255 30 6384 34 8438
25853 0.035398604843488793 -0.29239931990788159 -0.11819024868562775 180 169 151 2.1236268462747709 16 1938 35 1013
25857 0.96805762455093425 -0.063263863136025222 -0.20730897404594989 168 158 146 1.7609729112849259 14 1009 16 2067
63336 0.80760251573027397 0.88142481122059069 0.11579583858785092 0 0 0 0.0079894693289566977 8 5266 14 6578
26813 1.2055051025046315 0.45295101764828527 -0.0010077221290140902 130 123 107 2.073183691821598 32 2285 30 2957 8 7087 47 6295 34 3695
25858 -0.10588536097807014 0.57386100878843938 0.21959330829001861 174 158 144 1.5858026834151699 13 1783 7 1485 10 1817 26 1012 9 3019 6 1992 14 6783 27 1918 44 1650
37960 1.1247644946369988 0.15480501541006825 -0.14749690698456369 170 165 159 1.9802195176455271 34 72 11 211 30 90
26811 1.0186962768448302 0.0097761325803190132 -0.21283114993802882 193 197 200 2.5105857474042641 34 5846 32 2282
37970 1.1908260769336905 1.4396750965945577 0.1439911397923225 0 0 0 0.54066036400430983 8 311 14 2291
25872 -0.1246542765243267 0.3950476366928628 0.19567507058520048 181 165 152 1.570946359478407 16 2379 12 2424 13 1433 7 1121 44 1610 10 1768 26 1074 9 1822 28 966
25873 0.067822189516535847 0.40149893946497722 -0.18602478930144242 198 182 164 1.6942546367238767 14 2490 16 2383 12 2423 8 4055
26244 -0.2305895667694832 -0.52149418489398469 0.019066681797942568 183 165 153 0.068791970189092069 12 5512 13 4249
62113 0.11781107603107324 0.43966349590661119 -0.18232016149051844 144 124 100 0.91950750909781842 14 2660 31 1133 15 5647 29 1118
25884 -0.0062053373478756146 0.070436279676057478 -0.1476200063500461 211 199 188 1.071389524093884 16 2631 13 3256 37 1413 7 4977
25885 0.15498326055575187 -0.33171030951762609 -0.20639125922496035 112 102 89 1.0724039192515324 16 2736 12 3094 36 4201
25887 -0.25104415814909176 -0.57005962601177851 0.036827533674908604 137 116 98 1.784864368807509 36 3809 16 3056 12 1793
25889 0.51705095655410482 -0.46746250407069923 -0.30266975245527916 143 131 119 0.74101305604103196 14 1886 16 3163 8 2269
25897 0.020290412594869189 0.82221260229188342 0.020814296859560853 167 146 127 0.79969513928074987 14 2378 16 3481
59973 -0.3354664374767316 -0.33065941937954457 0.61606061898649611 141 131 121 1.2266904483405245 44 6720 9 4330 6 3956
32722 1.2793644795240433 1.3691339908823488 0.13885474221429009 146 128 117 1.7067337142302943 32 1806 47 1737 30 918
26272 0.9184619237522974 -0.015842063352847355 -0.2094785850470374 85 91 95 1.9593978646884487 39 4548 37 6856 38 3799 40 8694 8 3745 16 5561
54863 -0.2581540165582672 -0.34155394472683981 0.80744364889888876 100 78 57 1.951281586389398 10 7133 6 5516 46 5761 44 6657 3 5006 5 3390 45 5156
25914 -0.11352226554891368 0.56070329434356769 0.23888812726568381 164 147 131 1.4581052943414265 16 4020 12 4166 13 2877 7 4057 10 3623 26 1519 27 3857 9 4935 28 1657 6 5017 14 7762
86581 -0.00011406094807099152 -0.21123427584121959 0.98043021105293415 0 0 0 2.2337344656547811 45 2760 56 1957 43 1534
25933 0.13839277729420474 2.3204799060277894 0.62698865631886758 0 0 0 0.0044692925875678838 8 8703 14 6256
26316 1.3529962533715245 0.20497577910007533 -0.0011944382237423414 70 58 46 0.29933391155542755 34 165 32 182
54502 -0.099196111854729818 0.63012051874810016 0.22879403351409874 152 141 121 1.2539331688577584 12 6482 10 5817 27 2636 26 3590 28 3608
54967 -0.33844330603664918 -0.2826562347806969 0.54099343960988988 124 108 95 0.16082702291011594 44 9132 10 7459
55115 -0.25635246142914814 0.07335948594702639 0.66423163658053108 194 187 176 0.43684155736702968 7 4968 10 8363
26268 0.89392636642883749 -0.53585349587969744 -0.19715640792257572 177 162 151 1.5791643068192707 37 1866 38 2918 40 3016 41 6062 15 4617 39 1838 16 3159 36 1960 53 2486 52 4920 12 5645 13 7773
25970 0.29497068537739135 0.82874566411839756 -0.10620520688894206 194 177 159 0.90847614398660081 14 7590 16 5999 8 9164 28 2875 31 3197 29 2256 32 5124
86369 0.60894417052616934 -0.19151096856815963 0.99305766582949673 0 0 0 0.99668997881298071 3 3071 43 2723
64422 0.21956436198715851 0.87620442977278423 -0.10165108085934708 154 143 125 0.63057826179964405 28 4916 31 3620 29 3058
26859 1.0372527550579418 0.38916148879881446 -0.11739165870623532 110 94 71 1.2746213755156619 34 3617 47 2325 11 4703
86672 -0.19913042389389238 -0.62573912002877974 0.63362409283104559 139 119 95 0.9653541010026836 46 6699 43 4360 54 4901 33 4176
25976 0.25652147125887431 0.70684615304648146 -0.13016668212483493 191 176 155 1.9708834747492574 14 6711 16 6083 13 5333 8 5165 29 2948 37 5109
55207 -0.18426602753102528 -0.41843844800371949 -0.0075372505392859081 107 92 71 0.71351426086666481 7 6173 10 6403 44 4001
25977 0.96300714433201373 0.70662155295933404 0.060516267732680089 146 140 128 0.9585610238442076 8 5168 12 6421
86744 0.32977945519341484 0.037098358145138607 1.0701573588549065 0 0 0 1.5589247016915646 6 888 23 197
54399 -0.28170305018080072 0.011064596557421699 0.84867271308287351 156 134 113 1.2116970881598967 9 6616 6 7370 10 5392 44 7375
25984 -0.080951421861567466 0.55031855160974152 0.15271894902482758 134 122 110 0.85157865953397005 16 6194 12 4154 13 5242 7 5846 10 3629 28 2213 26 2277 14 6800 9 5276 44 2513 31 2726
25988 -0.14296359958229721 0.3324145018634323 0.23524611095516393 194 178 165 0.72259332925996178 16 6316 12 4010 13 5095 7 5194 26 2094 28 974
54492 -0.11467249984805825 0.53388757614891647 0.22864494077255998 191 183 172 0.30009643380436041 7 7485 10 5778 26 3468
25995 0.57739566316736735 -0.27564299152498178 -0.29028940280309751 170 158 145 0.64916902149456268 37 5761 16 6522
86645 0.15528146812665145 0.7082730220718968 1.2109322938266214 0 0 0 1.1610143205719141 48 6281 49 7382
25997 -0.012654854041903266 -0.43969849660246185 -0.1537598693960979 145 129 114 2.6418288309411739 35 8164 16 6651 12 4823 13 4370
64253 0.14571886495967526 0.45851226981488691 -0.15765342704670293 118 102 79 1.1467739293483552 16 7366 31 1918 29 2156 14 7846 8 7085 15 7966
26024 -0.1529460170473313 0.2847419410813305 0.2586565987850688 192 176 160 0.97639105248323632 16 7487 12 7850 13 7402 44 7637 7 5145 45 6466 26 5550
62563 0.4541273919618925 0.93392357277793348 0.0033372962832399632 50 39 21 0.51688525378818662 32 4835 31 2303 29 2093
26036 1.2106033573715493 0.64930658955043508 0.10664292383223478 0 0 0 0.033534382554961363 8 7198 34 5276
54464 -0.081877503059538975 0.3350928965339558 -0.056173945467608809 144 128 115 1.0776286440264318 10 5639 9 4839 44 7665
26047 1.1978374629899089 0.21382396514286203 -0.10371705121281284 100 95 89 2.3438015150414033 38 863 37 882 14 953 16 929 39 913 8 1938 15 2452 12 1060 11 2176
26084 1.1390386606086871 0.23859748220000179 -0.09220864840170144 145 130 114 0.93192251412983151 32 1254 47 935
26265 0.48581590365145755 -0.26674318588193774 -0.35384679138993735 194 178 161 1.3648136251026148 39 1424 14 1981 38 2162 16 2799 8 2359 37 1573 15 2941 40 2278 11 3692
26266 0.073457202051459933 -0.066925598993064592 -0.19657513286231723 201 189 177 1.6148385712709612 8 7956 14 5888 16 7796 37 6809 36 6651 13 6395
63746 0.053336032695995843 0.32713054129134261 -0.17172771815222948 156 152 143 2.4599405450216039 15 1192 31 689 29 670 11 1145
26267 -0.026986350694471486 -0.04499946795875627 -0.12864033726867671 212 203 198 1.2377414222795649 14 3353 37 1438 36 2527 8 3742 16 2548 12 2671 13 3373 7 3241 10 4085
26269 0.49584349498847524 -0.25691235825925768 -0.3409196888958797 125 109 92 1.6744113675710408 39 5213 40 4868 8 6639 15 6312 38 8731
35585 0.10922470111039549 -0.56422320789778246 -0.20978236673520209 137 121 108 0.25145931753840484 16 5100 12 5495 13 6909
26270 -0.061210395891422874 0.0039218466278715999 -0.095693938878008575 94 90 85 1.2205322820744042 37 6886 36 2951 16 5537 14 8158 8 9113 12 5302 13 4866 7 4927 51 7546
63476 0.84381136465823858 0.096051553619572835 -0.24653826227942333 0 0 0 2.0770157022589384 34 97 15 281
26275 0.35998657697152503 0.023067453143013464 -0.29015411152730197 84 79 70 1.568894111083758 37 2397 16 2660 12 6118 14 2110 8 3777 13 6295 15 5005
26277 0.058350988140048604 -0.43156741253225711 -0.27923508429798921 26 19 11 1.1420532787207303 36 4109 14 2966 37 8948 12 2935 16 3151 13 3785
26282 0.53392961300014208 0.83006824656372824 -0.052732510596769776 129 125 114 1.8403621943452371 31 21 15 83 34 39 14 76 8 73
38395 -0.056119597097061519 0.092139430033059924 -0.12554097678667728 210 203 195 0.28631711029888268 40 1178 11 4636
26294 0.97448979183289763 0.40635158703636737 -0.14094784949203631 109 89 62 1.6655993889297185 15 199 11 269 8 226 30 116 34 62
61884 0.96496788998462502 0.66284555402798706 0.11420629075693858 0 0 0 0.79884820257698574 28 592 32 619
26305 1.1012476268290725 0.30879385446797691 -0.10547940898289311 60 44 28 2.5389808506332985 11 346 47 109 32 149 15 509 16 2407
26321 1.2773756540436239 0.54056733293144177 0.052429308678842976 172 172 164 1.5284722621429045 8 445 15 521 11 424 34 143 14 362 16 751 37 568 12 988
26338 1.2916756726222096 0.45718037249224586 0.0041374659732049167 100 83 63 1.7188034201497673 8 442 34 149 47 181 30 203 11 421
26360 0.8846811696831286 0.056623802936729403 -0.29085563687854599 111 102 87 0.11042149045920799 34 491 15 1131
63413 -0.0068554510182953273 0.46349343871790227 -0.21784939538253706 87 60 43 0.14176670447101464 16 7367 29 1677
26366 1.1251834620597738 0.31847438622006297 -0.053170486461041368 113 106 96 1.6421866144760977 8 903 14 940 32 428 39 1107
26368 1.0112015098720635 0.43268751053750365 -0.079358665119987237 77 60 42 1.378914158600947 15 1202 32 435 14 2651 34 289 8 1981
26397 1.112514402310856 0.33418955857036986 -0.048160170677939575 73 63 51 1.4739819092256206 32 556 47 618 15 2484 40 1080 11 1435
26398 0.86717912184109081 0.40518243749545868 -0.12893496652660805 113 101 85 0.48077982768635785 8 4059 32 558
54391 -0.26527515598592566 -0.021277641112959676 0.87809952137033753 160 139 120 1.025022793212546 10 5345 9 4563 6 4655 44 4629
26402 1.0172513154497067 0.45535347884198846 -0.059792983628837448 126 117 102 1.5161932607761324 8 2851 32 571 14 2642 34 822 15 2508 39 2883
54334 -0.34979938110233727 -0.22986014638149785 0.36254463746291432 110 84 59 1.905307144773885 44 4317 10 5154 9 6158 6 7486
26435 1.0479222863296105 0.35721817882881374 -0.1022527608381326 74 53 32 1.1461712974558833 38 1121 32 704
86735 0.11471072159216712 -0.017716214181106176 1.0229775591268155 0 0 0 2.4668639204362774 6 494 23 196 3 303 5 206 9 715
26437 1.2532770061882725 0.34812683334059319 -0.053650618205217111 115 109 97 1.5037386130427031 34 581 47 949 12 3648
26451 1.0166672639257222 0.57880930414085219 -0.038946997202806116 75 55 31 1.7633542673598819 30 1179 47 1002 34 1243 14 2429 11 3275
62908 0.13427211457315807 0.9580712376640047 -0.039785911083806524 107 91 72 1.1861203774439903 28 4537 31 3418 29 3322
26663 1.3014331413311822 0.62248768794393683 0.074612993716554207 200 193 183 1.2196693697775907 32 1502 47 2421 34 1255 30 1410
26465 1.4252511858509957 0.69995579319797752 0.11079332191114555 103 86 60 1.8284521748082079 8 5164 47 1349 30 1207 15 4043 14 6709
26468 1.4105634473975137 0.71827153398670618 0.11056294063397368 131 117 90 0.79830328778522841 8 2775 11 1783 15 2609
26854 0.89865173535306364 0.38125111358788211 -0.15497380199201585 173 173 163 1.3752622702690231 34 1957 47 2326 32 2406
26536 0.96368326490154244 0.36286380918625283 -0.15523331090296352 178 179 168 1.0628929794910631 8 2881 15 3673 14 2496 37 2296
27192 1.3373663489566214 0.74935575681982114 0.10283008226450381 123 108 85 0.83021634381181408 32 3666 30 2732 47 2459
26559 1.2808875318180395 0.17346294034614279 -0.077116760807966797 108 101 87 0.49173097489167661 34 1421 32 1226
54913 -0.24721815868586222 -0.066978037638749974 0.87059260788807991 122 105 89 0.35413818380772183 10 7279 9 6235 6 6055 44 7208
26570 1.1993371548094829 0.28523588084052026 -0.10402652836841751 156 157 151 1.8788492940372954 34 1028 15 3833 11 2743 30 1544
27944 1.3299113607280189 0.59814982668511751 0.067713487271559583 171 154 127 1.5147728444083903 39 2099 40 1771 41 2326 15 4003 14 3848 38 1716 16 3576 12 6494
62598 0.49752170218125891 0.84362463132184651 -0.062574124452723132 129 117 103 1.0647546235623029 32 2666 31 2396 29 1227
26580 1.1953029573983767 0.31855417483382192 -0.06576076264564322 136 128 115 2.0449920577543499 14 6372 32 1299 15 3856 11 4672 16 7461 8 4946 12 6671
26589 1.0177198242087584 0.40746614249494389 -0.083613036426871609 78 61 43 0.15471563042139044 8 4065 32 1331
70733 -0.046793206432827722 -0.62818979957232624 0.84657420887866941 104 86 64 1.1807191162199893 46 3949 43 3003 33 2707 56 4398 57 5741 48 3030
59472 -0.12705947434608572 0.17838739335566581 0.25034262153108044 0 0 0 2.1399791826996886 35 5491 26 5003
26597 1.2338318215222117 0.39897375418884329 -0.029939049783170635 178 175 168 0.84867789534153326 38 4104 40 5609 39 2866
86179 0.49971675621253164 -0.31766381581612435 1.0177609408630561 0 0 0 0.8111480581227275 23 996 6 1543
26619 1.0240923677493567 0.55182684240615709 -0.048335690612430038 110 92 72 1.8005429206041477 34 1235 47 2390 15 3983 30 1447 32 1396 11 3292
26621 1.1966024787300553 0.48650793828448591 0.041002069206857672 146 143 138 2.0844419426508103 32 1402 47 2358 15 2519 8 3601 30 1464 11 1461 14 2455
26630 1.396407080682206 0.47263899393372338 0.11609350631420327 126 117 102 1.4599068476425718 8 4174 34 1204 11 3337 40 1135
27476 1.3792319943208315 0.72295633744400611 0.093008981299614837 143 127 102 2.1255014493950179 8 5176 47 2799 30 2718 15 6129 14 4747
59205 -0.35650594446675354 -0.30572150124080577 0.41020969220370251 143 128 109 1.390781263906439 44 5450 9 4373 6 5935 46 5195
29394 0.99153566183039443 1.5443428808030402 0.0827339950110456 125 110 87 1.4598420484584904 32 1708 47 2130 30 2351
26673 1.2818462088432792 0.65584933276206581 0.084227801232478944 132 123 104 1.4932771696684428 34 2782 8 9225 32 1526
30133 1.2997605769886029 1.3321174456257165 0.13752630156833126 138 127 109 0.70265494231947656 32 4861 30 4245 47 6651
84784 -0.25530649314903325 -0.43382983958446897 0.28463513299103332 0 0 0 1.4976070914924007 44 1990 35 1903
39175 0.71767940992318069 -0.16566840591154591 -0.39203844543521399 200 192 189 2.0984251773109319 34 2263 15 4865
28459 0.93624543220175838 0.25311232395315214 -0.19551494275964074 71 61 49 1.5219532560604621 32 26 47 34
64069 0.35970511664904947 0.5814073826896724 -0.18479195898283268 171 159 145 1.2521415991513081 31 1732 29 1469
30000 1.2346081416595636 1.340822487044949 0.093614293834908782 163 147 122 1.3177652455862088 32 4065 47 3625 30 3826
50767 -0.16479978529536074 -0.15998817759743772 0.13067913089122804 145 142 137 1.1596985100200963 7 4688 13 5629 44 6986 9 6573 12 5136
30010 1.3230830949132419 1.2997994764880181 0.13556189488345 131 119 97 0.69064798003721517 32 4040 30 3857 47 3458
26809 1.1538901115883045 -0.044931857482501732 -0.17879342851065466 162 158 157 0.050527930655076436 34 1931 32 2275
26818 1.130584415376811 0.0071881649966369062 -0.13464434514204462 131 130 135 0.18670165566124641 34 3203 32 2303
34666 0.57556138254994815 -0.20986193867360431 -0.30355759566692192 178 166 154 1.7099997140233776 16 1979 39 2429 12 2781 37 1541
30241 1.3373532932227399 1.3231181568680146 0.15429949514702368 116 98 76 0.5171996096403676 32 5710 30 4653 47 4920
84864 -0.15246904806813227 -0.10827300490985804 0.1714081473924573 0 0 0 1.0793206462555025 44 2987 45 2809
26840 1.2494010517333078 0.21235211908937141 -0.098900023634835868 160 156 145 0.08731712531787382 32 2366 34 1963
54296 -0.27212885498133282 -0.35439043077817756 0.2598967984855941 180 164 151 1.0671323267277295 44 4125 10 5040 9 3195
27565 1.1603570782749693 0.31014508038844724 -0.043069577838145606 92 82 70 0.1896683049965826 34 4814 32 5473
40774 1.2534287593506133 -0.16445419683242657 -0.063796077070839952 86 70 55 2.1011889106347437 38 2031 11 1348 15 2978
68432 -0.23217442745660052 -0.012550130749256084 0.91486741295481921 68 60 50 1.1396403035308413 6 4386 3 3128 5 1883 23 1519
